ply
format ascii 1.0
element vertex 1228
property float x
property float y
property float z
property uchar red
property uchar green
property uchar blue
end_header
-0.902564 -1.600000 -5.907692 95 91 74
-0.837905 -1.556110 -5.745636 100 97 80
-0.778589 -1.518248 -5.605839 103 101 84
-0.736077 -1.510896 -5.578692 105 105 87
-0.454361 -1.265720 -4.673428 112 114 100
-0.418511 -1.255533 -4.635815 115 117 103
-0.385542 -1.253012 -4.626506 119 121 107
-0.354125 -1.255533 -4.635815 125 127 113
-0.325203 -1.268293 -4.682927 126 131 116
-0.297521 -1.289256 -4.760331 109 116 100
-0.028520 -1.112299 -4.106952 104 118 95
0.000000 -1.104425 -4.077876 103 117 94
0.028021 -1.092820 -4.035026 102 116 93
0.056140 -1.094737 -4.042105 103 117 94
0.085714 -1.114286 -4.114286 103 117 94
0.114082 -1.112299 -4.106952 102 116 93
0.136286 -1.063032 -3.925043 101 115 92
0.162712 -1.057627 -3.905085 100 114 94
0.189189 -1.054054 -3.891892 99 113 94
0.216216 -1.054054 -3.891892 98 111 92
0.243243 -1.054054 -3.891892 98 110 90
0.354206 -0.394687 -1.457306 35 31 26
0.363866 -0.394188 -1.455464 41 40 33
0.372561 -0.392700 -1.449969 52 52 44
0.383354 -0.393443 -1.452711 33 34 27
0.394188 -0.394188 -1.455464 18 19 15
0.404551 -0.394437 -1.456384 25 28 27
0.448687 -0.372315 -1.374702 59 51 35
0.456328 -0.370766 -1.368984 69 59 42
0.466667 -0.371429 -1.371429 76 64 43
0.476474 -0.371650 -1.372245 75 61 36
0.487164 -0.372537 -1.375522 75 59 31
0.497608 -0.373206 -1.377990 75 56 26
0.508089 -0.373877 -1.380467 74 55 23
0.518296 -0.374325 -1.382124 77 55 28
0.527894 -0.374325 -1.382124 83 62 37
0.537493 -0.374325 -1.382124 91 73 50
0.547748 -0.374775 -1.383784 90 75 55
3.333333 -2.166667 -8.000000 96 95 74
3.377163 -2.159169 -7.972318 113 114 91
3.432526 -2.159169 -7.972318 93 88 64
3.382550 -2.093960 -7.731544 67 60 37
3.324675 -2.025974 -7.480519 68 60 40
3.209877 -1.925926 -7.111111 68 59 42
3.171171 -1.873874 -6.918919 66 57 39
3.209581 -1.868263 -6.898203 66 58 38
3.247761 -1.862687 -6.877612 68 61 36
3.256637 -1.840708 -6.796460 69 62 35
3.274854 -1.824561 -6.736842 71 60 34
3.245714 -1.782857 -6.582857 72 60 35
3.226891 -1.747899 -6.453782 71 59 35
3.200000 -1.709589 -6.312329 69 57 33
3.165775 -1.668449 -6.160428 66 54 30
3.191489 -1.659575 -6.127660 64 52 28
1.195572 -0.575646 -2.125461 51 40 25
1.208103 -0.574586 -2.121547 46 36 24
1.223963 -0.575115 -2.123502 36 28 14
1.254902 -0.582633 -2.151261 42 35 18
1.272217 -0.583723 -2.155285 43 37 18
1.288390 -0.584270 -2.157303 44 37 18
1.304592 -0.584817 -2.159325 45 36 18
1.328302 -0.588679 -2.173585 44 35 18
1.343396 -0.588679 -2.173585 43 34 16
-3.759791 -1.671018 -6.015666 63 59 48
-1.614512 -0.725624 -2.612245 71 67 56
-1.596372 -0.725624 -2.612245 78 74 63
-2.175000 -1.000000 -3.600000 79 75 63
-4.163009 -2.006270 -7.222570 81 78 61
-4.112853 -2.006270 -7.222570 80 77 60
-3.868657 -1.910448 -6.877612 80 77 60
-3.055276 -1.608040 -5.788945 77 74 57
-3.000000 -1.600000 -5.760000 74 71 54
-2.740741 -1.481481 -5.333333 72 67 54
-2.697460 -1.478060 -5.321016 69 63 51
-2.571429 -1.428571 -5.142857 64 58 46
-0.820837 -0.505130 -1.818469 62 54 43
-0.808208 -0.505130 -1.818469 64 56 45
-0.744470 -0.488177 -1.757437 66 58 47
-0.727273 -0.484848 -1.745455 68 60 49
-0.715151 -0.484848 -1.745455 70 62 51
-1.890295 -1.350211 -4.860759 73 65 54
-1.852632 -1.347368 -4.850526 73 65 54
-1.822785 -1.350211 -4.860759 72 64 53
-1.808102 -1.364606 -4.912580 71 63 52
-0.535885 -0.765550 -2.755981 97 84 67
-0.513674 -0.760999 -2.739596 92 84 65
-0.495828 -0.762813 -2.746126 90 81 65
-0.477897 -0.764636 -2.752688 89 81 65
-0.992248 -1.653747 -5.953488 89 83 67
-0.950904 -1.653747 -5.953488 92 85 69
-0.902564 -1.641026 -5.907692 96 92 75
-0.837905 -1.596010 -5.745636 100 98 80
-0.780488 -1.560976 -5.619512 103 101 84
-0.737864 -1.553398 -5.592233 105 105 87
-0.456212 -1.303462 -4.692464 113 115 101
-0.421907 -1.298175 -4.673428 115 117 103
-0.387097 -1.290323 -4.645161 119 121 107
-0.357724 -1.300813 -4.682927 125 127 113
-0.330579 -1.322314 -4.760331 126 131 115
-0.320713 -1.425390 -5.131403 98 105 89
-0.057451 -1.149013 -4.136445 103 117 96
-0.028520 -1.140820 -4.106952 103 117 94
0.000000 -1.134752 -4.085106 102 116 93
0.028021 -1.120841 -4.035026 102 116 93
0.056042 -1.120841 -4.035026 102 116 93
0.085561 -1.140820 -4.106952 102 116 93
0.114082 -1.140820 -4.106952 101 115 92
0.138169 -1.105354 -3.979275 100 114 92
0.163265 -1.088435 -3.918367 99 114 94
0.189831 -1.084746 -3.905085 99 112 94
0.216216 -1.081081 -3.891892 97 110 91
0.343651 -0.404296 -1.455464 20 17 15
0.353759 -0.404296 -1.455464 36 35 31
0.363866 -0.404296 -1.455464 47 50 45
0.333333 -0.360360 -1.297297 54 60 53
0.344476 -0.362606 -1.305382 36 40 36
0.393443 -0.403531 -1.452711 21 24 23
0.404551 -0.404551 -1.456384 17 21 22
0.446821 -0.380273 -1.368984 50 42 31
0.456057 -0.380048 -1.368171 62 53 40
0.465282 -0.379822 -1.367359 72 61 43
0.475907 -0.380726 -1.370613 77 64 41
0.485714 -0.380952 -1.371429 77 62 34
0.496124 -0.381634 -1.373882 73 57 25
0.508089 -0.383463 -1.380467 74 55 22
0.518296 -0.383923 -1.382124 79 56 24
0.528529 -0.384384 -1.383784 85 62 33
0.537493 -0.383923 -1.382124 93 73 47
0.547748 -0.384384 -1.383784 92 77 53
3.436242 -2.147651 -7.731544 70 62 40
3.209877 -1.975309 -7.111111 69 60 42
3.171171 -1.921922 -6.918919 67 58 41
3.219219 -1.921922 -6.918919 67 59 40
3.267267 -1.921922 -6.918919 69 61 38
3.365854 -1.951220 -7.024390 70 62 37
3.414634 -1.951220 -7.024390 73 62 38
3.421687 -1.927711 -6.939759 73 61 38
3.408284 -1.893491 -6.816568 72 60 37
3.455621 -1.893491 -6.816568 70 58 35
1.194470 -0.589862 -2.123502 53 41 27
1.208103 -0.589319 -2.121547 46 36 24
1.223963 -0.589862 -2.123502 37 28 16
1.253731 -0.597015 -2.149254 41 34 19
1.269841 -0.597572 -2.151261 43 37 19
1.289597 -0.599813 -2.159325 44 37 19
1.309501 -0.602070 -2.167451 44 35 18
-3.759791 -1.712794 -6.015666 64 60 49
-2.225000 -1.025000 -3.600000 72 68 57
-2.189736 -1.020218 -3.583204 78 74 63
-2.171607 -1.023401 -3.594384 79 75 63
-2.139969 -1.020218 -3.583204 80 76 62
-2.063733 -0.995448 -3.496206 80 77 61
-2.000000 -0.976190 -3.428571 80 77 60
-1.952941 -0.964706 -3.388235 80 77 60
-1.906977 -0.953488 -3.348837 81 78 61
-1.854077 -0.938484 -3.296137 81 78 61
-3.646724 -1.868946 -6.564103 81 78 61
-3.055276 -1.648241 -5.788945 77 74 57
-2.884615 -1.576923 -5.538462 74 71 54
-2.846154 -1.576923 -5.538462 73 68 54
-2.703704 -1.518519 -5.333333 70 64 52
-0.751347 -0.505004 -1.773672 64 56 45
-0.732824 -0.500763 -1.758779 65 57 46
-1.910448 -1.398721 -4.912580 73 65 54
-1.852632 -1.381053 -4.850526 72 64 53
-1.834395 -1.392781 -4.891720 72 64 53
-1.808102 -1.398721 -4.912580 72 64 53
-3.250000 -2.562500 -9.000000 71 63 52
-0.516746 -0.784689 -2.755981 95 87 69
-0.497013 -0.783751 -2.752688 92 84 68
-0.480192 -0.787515 -2.765906 92 84 68
-0.950904 -1.695090 -5.953488 95 89 72
-0.904884 -1.686375 -5.922879 99 95 78
-0.842105 -1.644110 -5.774436 103 100 83
-0.800000 -1.640000 -5.760000 107 106 88
-0.512821 -1.401709 -4.923077 114 116 102
-0.466667 -1.366667 -4.800000 114 116 102
-0.427105 -1.347023 -4.731006 116 118 104
-0.394251 -1.347023 -4.731006 121 123 109
-0.363636 -1.355372 -4.760331 127 129 115
-0.334728 -1.372385 -4.820084 122 126 111
-0.057762 -1.184116 -4.158845 102 116 95
-0.028520 -1.169340 -4.106952 102 116 93
0.000000 -1.165187 -4.092362 102 116 93
0.028021 -1.148862 -4.035026 102 116 93
0.056042 -1.148862 -4.035026 102 116 93
0.085561 -1.169340 -4.106952 102 116 93
0.114082 -1.169340 -4.106952 101 115 92
0.141093 -1.156966 -4.063492 100 114 91
0.165232 -1.129088 -3.965577 99 114 93
0.190476 -1.115646 -3.918367 98 112 94
0.218058 -1.117547 -3.925043 97 110 91
0.294591 -0.377445 -1.325662 14 15 15
0.300000 -0.372727 -1.309091 15 15 14
0.309091 -0.372727 -1.309091 15 15 15
0.315315 -0.369369 -1.297297 50 52 50
0.333333 -0.369369 -1.297297 113 124 119
0.342342 -0.369369 -1.297297 80 90 89
0.351351 -0.369369 -1.297297 54 63 64
0.360360 -0.369369 -1.297297 35 42 42
0.369369 -0.369369 -1.297297 28 32 30
0.437055 -0.389549 -1.368171 37 31 23
0.440797 -0.384525 -1.350528 38 32 25
0.450176 -0.384525 -1.350528 48 42 32
0.459555 -0.384525 -1.350528 62 54 39
0.469759 -0.385203 -1.352907 74 64 45
0.483986 -0.389087 -1.366548 78 65 42
0.495238 -0.390476 -1.371429 75 61 34
0.505665 -0.391175 -1.373882 75 59 29
0.517986 -0.393285 -1.381295 79 59 27
0.528529 -0.393994 -1.383784 84 63 31
0.537493 -0.393521 -1.382124 92 73 42
0.547091 -0.393521 -1.382124 95 80 50
3.250000 -2.050000 -7.200000 70 62 43
3.200000 -1.987879 -6.981818 68 60 42
3.238671 -1.981873 -6.960725 68 60 42
3.317073 -2.000000 -7.024390 69 61 41
3.504762 -2.082540 -7.314286 70 62 40
3.555556 -2.082540 -7.314286 73 62 40
3.538941 -2.043614 -7.177570 74 61 40
3.588785 -2.043614 -7.177570 72 60 38
1.195145 -0.612512 -2.151261 55 42 27
1.194470 -0.604608 -2.123502 53 41 29
1.209217 -0.604608 -2.123502 46 35 25
1.234201 -0.609665 -2.141264 37 29 18
1.253731 -0.611940 -2.149254 42 34 20
1.269841 -0.612512 -2.151261 43 36 21
1.289597 -0.614808 -2.159325 44 36 20
1.311970 -0.618285 -2.171536 44 35 20
1.332072 -0.620624 -2.179754 43 34 19
-3.750000 -1.750000 -6.000000 67 63 52
-2.225000 -1.050000 -3.600000 73 69 58
-2.196568 -1.048362 -3.594384 78 74 63
-2.175000 -1.050000 -3.600000 79 75 63
-2.126739 -1.038640 -3.561051 79 76 62
-2.063733 -1.019727 -3.496206 79 76 60
-2.000000 -1.000000 -3.428571 79 76 59
-1.938686 -0.981022 -3.363504 79 76 59
-1.876967 -0.961373 -3.296137 81 78 61
-1.817672 -0.942496 -3.231416 82 79 62
-1.782730 -0.935933 -3.208914 82 79 62
-3.000000 -1.680000 -5.760000 74 71 54
-2.846154 -1.615385 -5.538462 73 68 55
-4.375000 -2.625000 -9.000000 62 56 44
-4.312500 -2.625000 -9.000000 60 54 42
-1.880342 -1.435897 -4.923077 72 64 53
-1.842217 -1.432836 -4.912580 71 63 52
-1.811966 -1.435897 -4.923077 70 62 51
-3.250000 -2.625000 -9.000000 69 61 50
-0.519856 -0.808664 -2.772563 96 90 71
-0.497608 -0.803828 -2.755981 96 88 72
-0.480192 -0.806723 -2.765906 96 88 73
-0.907216 -1.731959 -5.938144 102 98 81
-0.842105 -1.684211 -5.774436 106 103 86
-0.800000 -1.680000 -5.760000 110 109 91
-0.756219 -1.671642 -5.731343 113 113 95
-0.516129 -1.445161 -4.954839 115 117 103
-0.469602 -1.408805 -4.830189 115 117 103
-0.434238 -1.402923 -4.810021 116 118 104
-0.400835 -1.402923 -4.810021 121 123 109
-0.368201 -1.405858 -4.820084 126 129 115
-0.337553 -1.417722 -4.860759 115 120 105
-0.058932 -1.237569 -4.243094 102 116 95
-0.028881 -1.212996 -4.158845 102 116 93
0.000000 -1.197861 -4.106952 102 116 93
0.028169 -1.183099 -4.056338 102 116 93
0.056338 -1.183099 -4.056338 102 116 93
0.086176 -1.206463 -4.136445 102 116 93
0.114901 -1.206463 -4.136445 101 115 92
0.141093 -1.185185 -4.063492 100 114 91
0.166378 -1.164645 -3.993068 99 114 93
0.192771 -1.156626 -3.965577 98 112 94
0.220310 -1.156626 -3.965577 97 110 91
0.342342 -0.378378 -1.297297 114 129 130
0.351351 -0.378378 -1.297297 86 100 102
0.360360 -0.378378 -1.297297 59 71 69
0.369369 -0.378378 -1.297297 38 45 41
0.378378 -0.378378 -1.297297 25 27 20
0.429405 -0.392065 -1.344224 40 38 29
0.438740 -0.392065 -1.344224 34 33 27
0.448598 -0.392523 -1.345794 38 36 28
0.458212 -0.392753 -1.346581 52 48 37
0.468658 -0.393673 -1.349736 64 57 43
0.478873 -0.394366 -1.352113 75 66 49
0.492017 -0.397398 -1.362507 78 67 47
0.503563 -0.399050 -1.368171 77 63 42
0.514592 -0.400238 -1.372245 77 60 37
0.527894 -0.403119 -1.382124 83 64 38
0.537493 -0.403119 -1.382124 90 74 40
0.547748 -0.403604 -1.383784 96 83 40
3.261147 -2.140127 -7.337580 71 64 39
3.270440 -2.113208 -7.245283 70 62 42
3.300000 -2.100000 -7.200000 69 60 42
3.308642 -2.074074 -7.111111 69 61 43
3.726027 -2.301370 -7.890411 70 62 43
3.742373 -2.277966 -7.810170 71 63 42
3.720930 -2.232558 -7.654485 73 62 41
3.606349 -2.133333 -7.314286 73 60 40
3.704180 -2.160772 -7.408360 71 58 38
1.196262 -0.628037 -2.153271 54 42 27
1.194470 -0.619355 -2.123502 52 40 30
1.209217 -0.619355 -2.123502 45 34 25
1.234201 -0.624535 -2.141264 38 29 19
1.254902 -0.627451 -2.151261 43 35 23
1.274602 -0.629803 -2.159325 43 36 21
1.296890 -0.633365 -2.171536 44 35 22
1.313208 -0.633962 -2.173585 44 35 22
1.332072 -0.635762 -2.179754 43 34 21
1.349763 -0.636967 -2.183886 42 33 20
-3.750000 -1.791667 -6.000000 69 65 54
-3.708333 -1.791667 -6.000000 74 70 59
-2.224329 -1.086888 -3.639810 78 74 62
-2.199052 -1.086888 -3.639810 79 75 63
-2.156740 -1.078370 -3.611285 79 75 61
-2.102009 -1.063369 -3.561051 78 75 59
-2.039454 -1.044006 -3.496206 78 75 58
-1.976190 -1.023810 -3.428571 78 75 58
-1.915329 -1.004380 -3.363504 80 76 60
-1.854077 -0.984263 -3.296137 80 77 60
-1.790210 -0.962238 -3.222378 80 77 60
-4.625000 -2.687500 -9.000000 72 67 54
-4.500000 -2.687500 -9.000000 64 58 46
-4.437500 -2.687500 -9.000000 62 56 44
-4.375000 -2.687500 -9.000000 62 56 44
-4.312500 -2.687500 -9.000000 62 56 44
-4.250000 -2.687500 -9.000000 62 56 44
-4.187500 -2.687500 -9.000000 64 58 46
-4.125000 -2.687500 -9.000000 64 57 45
-3.924528 -2.596226 -8.694340 64 56 45
-3.312500 -2.687500 -9.000000 68 60 48
-3.250000 -2.687500 -9.000000 69 61 50
-3.187500 -2.687500 -9.000000 70 62 51
-0.520482 -0.828916 -2.775904 98 91 72
-0.500000 -0.826923 -2.769231 97 90 72
-0.481928 -0.828916 -2.775904 97 90 73
-0.904884 -1.768638 -5.922879 102 99 81
-0.844221 -1.728643 -5.788945 105 102 85
-0.802005 -1.724311 -5.774436 109 107 89
-0.512821 -1.470086 -4.923077 114 116 102
-0.469602 -1.442348 -4.830189 115 117 103
-0.436059 -1.442348 -4.830189 117 119 105
-0.402516 -1.442348 -4.830189 122 124 109
-0.370526 -1.448421 -4.850526 126 129 114
-0.230216 -1.649880 -5.525180 105 116 99
-0.058824 -1.264706 -4.235294 102 116 94
-0.029250 -1.257770 -4.212066 102 116 92
0.000000 -1.230769 -4.121646 102 116 92
0.028369 -1.219858 -4.085106 102 116 92
0.056738 -1.219858 -4.085106 102 116 92
0.086331 -1.237410 -4.143885 102 116 92
0.115108 -1.237410 -4.143885 101 115 91
0.142096 -1.222025 -4.092362 100 114 91
0.167539 -1.200698 -4.020942 100 113 93
0.195122 -1.198606 -4.013937 99 112 93
0.229803 -1.235188 -4.136445 97 110 91
0.351351 -0.387387 -1.297297 100 118 119
0.360360 -0.387387 -1.297297 71 86 84
0.369369 -0.387387 -1.297297 42 51 46
0.431655 -0.412470 -1.381295 42 40 27
0.429907 -0.401869 -1.345794 40 41 33
0.439252 -0.401869 -1.345794 34 36 31
0.448598 -0.401869 -1.345794 37 39 33
0.458212 -0.402104 -1.346581 53 53 45
0.468658 -0.403046 -1.349736 65 63 53
0.478873 -0.403756 -1.352113 72 68 56
0.489412 -0.404706 -1.355294 70 65 51
0.499411 -0.405183 -1.356890 72 64 51
0.510035 -0.406139 -1.360094 75 63 51
0.524122 -0.409768 -1.372245 79 65 47
0.537170 -0.412470 -1.381295 87 75 42
0.548406 -0.413710 -1.385448 108 98 47
2.717808 -1.884932 -6.312329 129 124 71
2.739130 -1.869565 -6.260870 73 65 34
2.782609 -1.869565 -6.260870 73 65 39
3.270440 -2.163522 -7.245283 71 62 42
3.363057 -2.191083 -7.337580 70 61 43
3.671233 -2.356164 -7.890411 70 61 44
3.726027 -2.356164 -7.890411 71 63 44
3.742373 -2.332203 -7.810170 71 63 43
3.758389 -2.308725 -7.731544 72 61 41
3.700326 -2.241042 -7.504886 71 59 40
3.704180 -2.212219 -7.408360 69 58 38
1.196262 -0.642991 -2.153271 53 41 27
1.194470 -0.634101 -2.123502 51 39 29
1.209217 -0.634101 -2.123502 44 33 25
1.234201 -0.639405 -2.141264 38 29 20
1.299339 -0.649670 -2.175637 44 35 22
1.316935 -0.650899 -2.179754 44 34 22
1.333333 -0.651515 -2.181818 43 33 21
1.349763 -0.652133 -2.183886 42 32 20
-3.750000 -1.833333 -6.000000 73 68 55
-3.708333 -1.833333 -6.000000 76 71 58
-2.222940 -1.137318 -3.722132 79 74 60
-3.035714 -1.571429 -5.142857 79 74 59
-4.625000 -2.750000 -9.000000 72 66 52
-4.562500 -2.750000 -9.000000 67 61 48
-4.500000 -2.750000 -9.000000 63 57 43
-4.437500 -2.750000 -9.000000 62 56 43
-4.375000 -2.750000 -9.000000 63 57 43
-4.312500 -2.750000 -9.000000 63 57 44
-4.250000 -2.750000 -9.000000 63 57 44
-4.187500 -2.750000 -9.000000 64 58 44
-3.969925 -2.646616 -8.661654 65 57 44
-3.851852 -2.607407 -8.533334 66 57 44
-3.764706 -2.588235 -8.470589 66 57 44
-3.058021 -2.402730 -7.863481 74 65 52
-3.109541 -2.487633 -8.141343 72 63 49
-3.312500 -2.750000 -9.000000 68 60 46
-3.250000 -2.750000 -9.000000 69 60 47
-3.187500 -2.750000 -9.000000 70 61 48
-0.501205 -0.848193 -2.775904 97 89 70
-1.041667 -1.833333 -6.000000 94 90 71
-0.958333 -1.833333 -6.000000 98 94 75
-0.904884 -1.809769 -5.922879 101 98 79
-0.842105 -1.764411 -5.774436 104 102 83
-0.794045 -1.746898 -5.717122 108 106 86
-0.750617 -1.738272 -5.688889 111 109 90
-0.516129 -1.513978 -4.954839 113 114 98
-0.475584 -1.494692 -4.891720 116 117 100
-0.437895 -1.482105 -4.850526 119 120 103
-0.405063 -1.485232 -4.860759 121 122 106
-0.376068 -1.504274 -4.923077 126 127 111
-0.271186 -1.704600 -5.578692 105 116 98
-0.231325 -1.696386 -5.551807 104 116 98
-0.058824 -1.294118 -4.235294 103 115 92
-0.029250 -1.287020 -4.212066 103 115 90
0.000000 -1.259392 -4.121646 104 116 91
0.028369 -1.248227 -4.085106 104 116 91
0.056738 -1.248227 -4.085106 104 115 90
0.085714 -1.257143 -4.114286 103 115 90
0.114286 -1.257143 -4.114286 103 114 90
0.142096 -1.250444 -4.092362 103 114 90
0.168717 -1.237258 -4.049209 102 112 91
0.196837 -1.237258 -4.049209 100 110 92
0.231047 -1.270758 -4.158845 98 109 91
0.435245 -0.416322 -1.362507 40 42 38
0.442613 -0.414361 -1.356092 35 41 41
0.451765 -0.414118 -1.355294 52 59 59
0.461176 -0.414118 -1.355294 85 92 90
0.471143 -0.414605 -1.356890 89 97 94
0.480283 -0.414361 -1.356092 78 87 84
0.489412 -0.414118 -1.355294 67 76 71
0.498237 -0.413631 -1.353701 61 70 66
0.507638 -0.413631 -1.353701 60 67 65
0.519481 -0.415584 -1.360094 63 65 58
0.538785 -0.423331 -1.385448 74 72 49
2.746594 -1.918256 -6.277929 78 66 34
2.782609 -1.913043 -6.260870 75 64 38
3.696552 -2.427586 -7.944828 70 62 46
3.726027 -2.410959 -7.890411 70 63 46
3.729730 -2.378378 -7.783784 70 64 44
3.758389 -2.362416 -7.731544 68 63 41
3.736842 -2.315789 -7.578948 68 62 39
3.752443 -2.293160 -7.504886 66 59 37
1.197381 -0.658559 -2.155285 49 40 26
1.194470 -0.648848 -2.123502 47 40 29
1.209217 -0.648848 -2.123502 41 34 26
1.318182 -0.666667 -2.181818 43 34 20
1.334597 -0.667299 -2.183886 43 34 19
1.353612 -0.669201 -2.190114 41 32 18
-3.740260 -1.870130 -5.984416 75 68 56
-3.698701 -1.870130 -5.984416 76 70 58
-4.750000 -2.812500 -9.000000 78 71 59
-4.687500 -2.812500 -9.000000 75 69 56
-4.625000 -2.812500 -9.000000 72 66 54
-4.562500 -2.812500 -9.000000 68 62 50
-4.500000 -2.812500 -9.000000 64 58 45
-4.437500 -2.812500 -9.000000 63 57 44
-4.375000 -2.812500 -9.000000 62 56 44
-4.312500 -2.812500 -9.000000 62 56 43
-4.250000 -2.812500 -9.000000 62 56 43
-4.187500 -2.812500 -9.000000 62 56 43
-3.984906 -2.716981 -8.694340 63 56 43
-3.823529 -2.647059 -8.470589 64 56 43
-3.696751 -2.599278 -8.317690 65 57 44
-3.549296 -2.535211 -8.112676 66 58 45
-3.040000 -2.400000 -7.680000 72 64 50
-2.986667 -2.400000 -7.680000 73 64 51
-3.003413 -2.457338 -7.863481 71 62 49
-3.053004 -2.544170 -8.141343 68 60 46
-2.996466 -2.544170 -8.141343 67 59 46
-3.250000 -2.812500 -9.000000 67 59 46
-3.187500 -2.812500 -9.000000 68 59 46
-1.000000 -1.875000 -6.000000 93 90 72
-0.950904 -1.860465 -5.953488 94 91 74
-0.902564 -1.846154 -5.907692 98 95 78
-0.842105 -1.804511 -5.774436 102 99 82
-0.798005 -1.795511 -5.745636 105 102 84
-0.754342 -1.786600 -5.717122 108 105 88
-0.720000 -1.800000 -5.760000 111 109 92
-0.476596 -1.531915 -4.902128 114 113 97
-0.441614 -1.528662 -4.891720 116 115 99
-0.410256 -1.538462 -4.923077 123 121 106
-0.384279 -1.572052 -5.030568 120 119 104
-0.233577 -1.751825 -5.605839 102 115 98
-0.058824 -1.323529 -4.235294 106 115 95
-0.029091 -1.309091 -4.189091 106 116 93
0.000000 -1.285714 -4.114286 105 115 93
0.028021 -1.260946 -4.035026 105 115 92
0.056338 -1.267606 -4.056338 104 114 91
0.085409 -1.281139 -4.099644 104 113 91
0.113879 -1.281139 -4.099644 104 113 91
0.141844 -1.276596 -4.085106 103 113 91
0.168717 -1.265378 -4.049209 102 110 91
0.196837 -1.265378 -4.049209 100 108 92
0.231047 -1.299639 -4.158845 98 108 92
0.431655 -0.431655 -1.381295 46 43 37
0.441247 -0.431655 -1.381295 42 46 45
0.445498 -0.426540 -1.364929 58 68 70
0.454169 -0.425784 -1.362507 101 111 113
0.464455 -0.426540 -1.364929 115 126 128
0.472534 -0.425281 -1.360898 104 117 118
0.481985 -0.425281 -1.360898 85 100 100
0.490277 -0.424278 -1.357690 66 82 82
0.498237 -0.423032 -1.353701 49 66 67
0.507340 -0.422783 -1.352907 43 58 61
0.518868 -0.424528 -1.358491 40 51 51
3.700680 -2.448980 -7.836735 71 64 46
3.704698 -2.416107 -7.731544 70 64 45
3.733333 -2.400000 -7.680000 69 63 41
3.736842 -2.368421 -7.578948 68 63 39
3.728155 -2.330097 -7.456311 66 60 36
1.211650 -0.699029 -2.236893 57 47 27
1.215385 -0.692308 -2.215385 52 43 25
1.219048 -0.685714 -2.194286 47 40 25
1.194470 -0.663594 -2.123502 45 40 28
1.209217 -0.663594 -2.123502 42 38 29
1.278152 -0.692974 -2.217517 38 32 23
1.319431 -0.682464 -2.183886 43 34 19
1.334597 -0.682464 -2.183886 43 34 19
1.356190 -0.685714 -2.194286 41 32 17
-3.720930 -1.901809 -5.953488 56 50 40
-1.618182 -0.836364 -2.618182 57 51 41
-1.592760 -0.832579 -2.606335 59 52 42
-4.750000 -2.875000 -9.000000 60 53 43
-4.687500 -2.875000 -9.000000 58 52 41
-4.625000 -2.875000 -9.000000 57 50 40
-4.562500 -2.875000 -9.000000 55 48 38
-4.500000 -2.875000 -9.000000 52 46 36
-4.437500 -2.875000 -9.000000 51 45 34
-4.375000 -2.875000 -9.000000 51 44 34
-4.312500 -2.875000 -9.000000 51 44 34
-4.250000 -2.875000 -9.000000 51 44 34
-4.187500 -2.875000 -9.000000 50 44 33
-3.969925 -2.766917 -8.661654 51 43 32
-3.823529 -2.705882 -8.470589 51 43 32
-3.631206 -2.609929 -8.170213 53 45 34
-3.549296 -2.591549 -8.112676 55 47 35
-3.674074 -2.725926 -8.533334 56 48 36
-3.040000 -2.453333 -7.680000 62 54 42
-2.986667 -2.453333 -7.680000 62 54 43
-3.003413 -2.511945 -7.863481 62 54 42
-3.053004 -2.600707 -8.141343 61 53 41
-3.007092 -2.609929 -8.170213 60 52 41
-2.982079 -2.637993 -8.258064 60 52 41
-3.187500 -2.875000 -9.000000 61 52 41
-1.000000 -1.916667 -6.000000 73 70 58
-0.950904 -1.901809 -5.953488 73 69 57
-0.902564 -1.887179 -5.907692 73 70 58
-0.842105 -1.844612 -5.774436 75 71 59
-0.798005 -1.835411 -5.745636 76 72 60
-0.754342 -1.826303 -5.717122 77 73 61
-0.720000 -1.840000 -5.760000 78 74 62
-0.502242 -1.650224 -5.165919 77 73 60
-0.454148 -1.606987 -5.030568 77 74 61
-0.419214 -1.606987 -5.030568 78 75 62
-0.393736 -1.646532 -5.154362 75 72 60
-0.271186 -1.782082 -5.578692 92 100 91
-0.232446 -1.782082 -5.578692 89 100 90
-0.029091 -1.338182 -4.189091 91 101 87
0.000000 -1.295775 -4.056338 92 102 88
0.027923 -1.284468 -4.020942 92 102 88
0.056338 -1.295775 -4.056338 93 104 89
0.085714 -1.314286 -4.114286 94 104 90
0.113879 -1.309609 -4.099644 94 104 90
0.141343 -1.300353 -4.070672 94 104 90
0.167247 -1.282230 -4.013937 95 103 89
0.195122 -1.282230 -4.013937 94 102 89
0.506151 -0.431166 -1.349736 36 47 52
3.626667 -2.453333 -7.680000 74 63 46
3.680000 -2.453333 -7.680000 74 64 44
3.720930 -2.445183 -7.654485 74 63 41
3.676375 -2.381877 -7.456311 74 63 41
3.728155 -2.381877 -7.456311 69 59 37
1.196116 -0.714563 -2.236893 58 50 27
1.198847 -0.707012 -2.213257 57 47 26
1.214217 -0.707012 -2.213257 50 41 23
1.262753 -0.708373 -2.217517 44 40 31
1.275696 -0.707012 -2.213257 40 34 25
1.319431 -0.697630 -2.183886 43 34 19
1.340952 -0.700952 -2.194286 43 34 19
1.356190 -0.700952 -2.194286 41 32 17
-3.720930 -1.943152 -5.953488 29 24 16
-1.618182 -0.854545 -2.618182 30 25 17
-1.592760 -0.850679 -2.606335 30 25 18
-4.750000 -2.937500 -9.000000 33 28 20
-4.687500 -2.937500 -9.000000 33 27 20
-4.625000 -2.937500 -9.000000 32 27 19
-4.562500 -2.937500 -9.000000 33 27 20
-4.500000 -2.937500 -9.000000 33 28 20
-4.437500 -2.937500 -9.000000 33 28 20
-4.375000 -2.937500 -9.000000 32 27 20
-4.312500 -2.937500 -9.000000 32 27 19
-4.250000 -2.937500 -9.000000 32 27 19
-4.045283 -2.837736 -8.694340 32 27 19
-3.896679 -2.774908 -8.501845 33 26 17
-3.823529 -2.764706 -8.470589 33 26 16
-3.849624 -2.827068 -8.661654 34 26 17
-3.789474 -2.827068 -8.661654 34 27 17
-3.200000 -2.593103 -7.944828 39 32 22
-3.060403 -2.523490 -7.731544 39 32 22
-3.006711 -2.523490 -7.731544 39 32 22
-3.066202 -2.620209 -8.027875 39 32 22
-3.107914 -2.705036 -8.287769 41 34 24
-3.039427 -2.695340 -8.258064 41 34 24
-2.982079 -2.695340 -8.258064 41 34 24
-2.924731 -2.695340 -8.258064 42 34 25
-0.950904 -1.943152 -5.953488 40 35 29
-0.902564 -1.928205 -5.907692 42 37 30
-0.850633 -1.903798 -5.832911 43 38 31
-0.802005 -1.884712 -5.774436 43 38 32
-0.760000 -1.880000 -5.760000 43 38 31
-0.746114 -1.948187 -5.968912 43 38 29
-0.577320 -1.938144 -5.938144 45 39 28
-0.467416 -1.689888 -5.177528 46 40 30
-0.429530 -1.682327 -5.154362 45 39 29
-0.393736 -1.682327 -5.154362 44 39 30
-0.312195 -1.834146 -5.619512 51 54 53
-0.271845 -1.825243 -5.592233 47 54 52
-0.233010 -1.825243 -5.592233 45 56 52
-0.194647 -1.829684 -5.605839 45 54 51
0.000000 -1.312391 -4.020942 47 57 52
0.027875 -1.310104 -4.013937 47 57 52
0.056338 -1.323944 -4.056338 48 58 52
0.088235 -1.382353 -4.235294 48 58 53
0.116788 -1.372263 -4.204380 48 58 53
0.142857 -1.342857 -4.114286 48 58 53
0.168421 -1.319298 -4.042105 50 58 52
3.478261 -2.335404 -7.155280 78 63 44
3.664516 -2.425807 -7.432258 78 63 44
3.716129 -2.425807 -7.432258 72 58 39
3.661442 -2.357367 -7.222570 68 56 35
1.196116 -0.730097 -2.236893 58 50 26
1.198847 -0.722382 -2.213257 55 45 24
1.214217 -0.722382 -2.213257 47 38 20
1.275696 -0.722382 -2.213257 40 34 25
1.344795 -0.718243 -2.200573 43 34 19
1.356190 -0.716190 -2.194286 41 32 17
-3.730570 -1.989637 -5.968912 24 20 15
-1.618182 -0.872727 -2.618182 24 21 16
-1.600000 -0.872727 -2.618182 25 22 16
-4.625000 -3.000000 -9.000000 28 24 19
-4.562500 -3.000000 -9.000000 28 24 19
-4.500000 -3.000000 -9.000000 28 25 20
-4.437500 -3.000000 -9.000000 29 25 20
-4.375000 -3.000000 -9.000000 29 26 21
-4.312500 -3.000000 -9.000000 30 26 21
-4.250000 -3.000000 -9.000000 30 26 21
-4.045283 -2.898113 -8.694340 30 26 21
-3.882353 -2.823529 -8.470589 30 25 19
-3.823529 -2.823529 -8.470589 30 25 18
-3.335689 -2.713781 -8.141343 34 28 21
-3.222222 -2.666667 -8.000000 34 28 21
-3.112628 -2.621161 -7.863481 34 28 21
-3.111111 -2.666667 -8.000000 35 30 22
-3.154122 -2.752688 -8.258064 36 31 24
-3.130435 -2.782609 -8.347826 37 32 24
-3.061372 -2.772563 -8.317690 37 32 24
-2.982079 -2.752688 -8.258064 37 32 24
-2.893617 -2.723404 -8.170213 37 32 25
-2.826855 -2.713781 -8.141343 39 31 25
-2.712803 -2.657439 -7.972318 39 30 25
-0.997290 -2.081301 -6.243902 39 34 30
-0.916667 -2.000000 -6.000000 39 34 30
-0.868217 -1.984496 -5.953488 39 34 31
-0.824742 -1.979381 -5.938144 40 35 32
-0.787565 -1.989637 -5.968912 40 35 32
-0.631579 -2.021053 -6.063158 41 36 29
-0.583333 -2.000000 -6.000000 42 37 29
-0.538860 -1.989637 -5.968912 43 38 30
-0.431461 -1.725843 -5.177528 44 39 31
-0.455959 -1.989637 -5.968912 41 36 30
-0.312195 -1.873171 -5.619512 37 41 45
-0.271845 -1.864078 -5.592233 35 44 45
-0.234146 -1.873171 -5.619512 34 44 45
-0.196078 -1.882353 -5.647059 33 44 45
0.000000 -1.337979 -4.013937 34 43 45
0.027875 -1.337979 -4.013937 33 43 45
0.058824 -1.411765 -4.235294 32 41 44
0.118081 -1.416974 -4.250923 31 41 43
3.549669 -2.543046 -7.629139 71 64 53
3.255814 -2.232558 -6.697674 75 63 47
3.442424 -2.327273 -6.981818 77 63 48
3.348837 -2.232558 -6.697674 72 59 43
3.156757 -2.075676 -6.227027 69 58 40
3.200000 -2.075676 -6.227027 64 54 33
1.192643 -0.743466 -2.230397 58 50 26
1.198847 -0.737752 -2.213257 55 45 24
1.214217 -0.737752 -2.213257 50 41 23
1.275696 -0.737752 -2.213257 41 34 26
1.306436 -0.737752 -2.213257 45 34 23
1.268203 -0.707834 -2.123502 43 33 19
1.360076 -0.733524 -2.200573 41 32 17
-3.730570 -2.031088 -5.968912 17 15 11
-3.689119 -2.031088 -5.968912 17 16 12
-1.600000 -0.890909 -2.618182 18 17 12
-4.625000 -3.062500 -9.000000 21 20 16
-4.562500 -3.062500 -9.000000 21 20 16
-4.500000 -3.062500 -9.000000 21 20 16
-4.437500 -3.062500 -9.000000 21 20 16
-4.375000 -3.062500 -9.000000 22 20 16
-4.312500 -3.062500 -9.000000 22 20 16
-4.250000 -3.062500 -9.000000 22 20 16
-4.187500 -3.062500 -9.000000 22 20 16
-4.125000 -3.062500 -9.000000 24 20 15
-4.062500 -3.062500 -9.000000 24 20 15
-3.750000 -3.062500 -9.000000 26 21 16
-3.323944 -2.760563 -8.112676 26 21 16
-3.222222 -2.722222 -8.000000 26 21 16
-3.144828 -2.703448 -7.944828 26 21 17
-3.111111 -2.722222 -8.000000 28 23 18
-3.154122 -2.810036 -8.258064 29 24 19
-3.130435 -2.840580 -8.347826 29 24 19
-3.072464 -2.840580 -8.347826 29 24 19
-3.014493 -2.840580 -8.347826 29 24 19
-2.924731 -2.810036 -8.258064 29 24 19
-0.983957 -2.096257 -6.160428 35 30 27
-0.938667 -2.090667 -6.144000 35 30 27
-0.898396 -2.096257 -6.160428 36 31 28
-0.737127 -2.124661 -6.243902 29 28 22
-0.646900 -2.113208 -6.210243 32 30 24
-0.597333 -2.090667 -6.144000 35 33 27
-0.547368 -2.063158 -6.063158 39 37 32
-0.501305 -2.046997 -6.015666 41 39 34
-0.235294 -1.921569 -5.647059 29 44 46
-0.195122 -1.912195 -5.619512 30 44 46
3.549669 -2.596026 -7.629139 76 77 70
3.521036 -2.537217 -7.456311 70 71 60
3.345454 -2.375758 -6.981818 68 68 55
3.333333 -2.333333 -6.857143 69 65 53
3.302325 -2.279070 -6.697674 69 63 52
3.319885 -2.259366 -6.639770 67 60 48
3.280899 -2.202247 -6.471910 65 58 44
1.185185 -0.764133 -2.245614 60 51 30
1.186898 -0.755299 -2.219653 59 49 28
1.200000 -0.753846 -2.215385 55 45 25
1.211889 -0.751678 -2.209013 51 42 24
1.197782 -0.724584 -2.129390 44 40 28
1.202567 -0.718607 -2.111824 42 37 28
1.215005 -0.717292 -2.107960 41 35 26
1.233028 -0.719266 -2.113761 44 35 25
1.250000 -0.720588 -2.117647 46 34 23
1.264706 -0.720588 -2.117647 43 33 19
1.280589 -0.721251 -2.119595 42 33 18
1.344795 -0.748806 -2.200573 42 33 18
1.360076 -0.748806 -2.200573 41 32 17
-3.740260 -2.077922 -5.984416 9 8 6
-4.625000 -3.125000 -9.000000 12 11 9
-4.562500 -3.125000 -9.000000 12 11 9
-4.500000 -3.125000 -9.000000 12 11 9
-4.437500 -3.125000 -9.000000 12 11 9
-4.375000 -3.125000 -9.000000 13 12 9
-4.312500 -3.125000 -9.000000 13 12 10
-4.250000 -3.125000 -9.000000 13 12 10
-4.187500 -3.125000 -9.000000 13 12 9
-4.125000 -3.125000 -9.000000 15 12 9
-4.062500 -3.125000 -9.000000 16 12 9
-3.937500 -3.125000 -9.000000 16 12 9
-3.875000 -3.125000 -9.000000 16 12 9
-3.812500 -3.125000 -9.000000 17 12 9
-3.750000 -3.125000 -9.000000 17 12 9
-3.687500 -3.125000 -9.000000 16 12 9
-3.267606 -2.816901 -8.112676 17 12 9
-3.211268 -2.816901 -8.112676 17 13 10
-3.211470 -2.867383 -8.258064 18 14 10
-3.437500 -3.125000 -9.000000 18 14 11
-3.375000 -3.125000 -9.000000 18 14 11
-3.312500 -3.125000 -9.000000 18 14 11
-3.250000 -3.125000 -9.000000 18 14 11
-3.187500 -3.125000 -9.000000 18 14 10
-1.054945 -2.197802 -6.329670 45 40 36
-0.997290 -2.168022 -6.243902 46 41 37
-0.956522 -2.173913 -6.260870 45 40 37
-1.125000 -3.125000 -9.000000 41 41 36
-0.737127 -2.168022 -6.243902 27 29 24
-0.690027 -2.156334 -6.210243 23 25 20
-0.646900 -2.156334 -6.210243 26 28 23
-0.602151 -2.150538 -6.193548 30 32 27
-0.554667 -2.133333 -6.144000 38 39 34
-0.512000 -2.133333 -6.144000 40 41 36
-0.207792 -1.731602 -4.987013 28 49 50
-0.172786 -1.727862 -4.976242 28 48 49
-0.138528 -1.731602 -4.987013 29 47 49
-0.103896 -1.731602 -4.987013 31 47 50
3.496689 -2.649007 -7.629139 199 209 204
3.469256 -2.588997 -7.456311 174 184 179
3.432177 -2.523659 -7.268139 136 148 140
3.345454 -2.424242 -6.981818 103 116 106
3.333333 -2.380952 -6.857143 79 87 79
3.302325 -2.325581 -6.697674 67 71 64
3.348837 -2.325581 -6.697674 63 64 56
1.189296 -0.792864 -2.283449 61 53 39
1.182879 -0.778210 -2.241245 61 49 33
1.186898 -0.770713 -2.219653 59 46 29
1.198847 -0.768492 -2.213257 55 44 25
1.211889 -0.767018 -2.209013 51 42 24
1.197782 -0.739372 -2.129390 44 40 28
1.199269 -0.731261 -2.106033 41 37 27
1.213894 -0.731261 -2.106033 40 34 25
1.229643 -0.731930 -2.107960 43 34 24
1.247706 -0.733945 -2.113761 45 33 22
1.262385 -0.733945 -2.113761 42 32 18
1.279412 -0.735294 -2.117647 40 31 16
1.294118 -0.735294 -2.117647 41 32 17
1.362679 -0.765550 -2.204785 41 32 17
-3.750000 -2.125000 -6.000000 8 7 7
-4.687500 -3.187500 -9.000000 11 10 10
-4.625000 -3.187500 -9.000000 11 9 9
-4.562500 -3.187500 -9.000000 10 9 9
-4.500000 -3.187500 -9.000000 10 9 9
-4.437500 -3.187500 -9.000000 11 9 9
-4.375000 -3.187500 -9.000000 12 11 11
-4.312500 -3.187500 -9.000000 13 11 11
-4.250000 -3.187500 -9.000000 13 11 11
-4.187500 -3.187500 -9.000000 13 11 11
-4.125000 -3.187500 -9.000000 14 11 10
-4.062500 -3.187500 -9.000000 14 10 9
-4.000000 -3.187500 -9.000000 14 10 9
-3.937500 -3.187500 -9.000000 14 11 9
-3.875000 -3.187500 -9.000000 15 11 10
-3.812500 -3.187500 -9.000000 16 12 10
-3.750000 -3.187500 -9.000000 16 12 10
-3.687500 -3.187500 -9.000000 16 12 11
-3.625000 -3.187500 -9.000000 16 12 11
-3.562500 -3.187500 -9.000000 16 12 11
-3.437500 -3.187500 -9.000000 16 12 12
-3.375000 -3.187500 -9.000000 17 13 12
-3.312500 -3.187500 -9.000000 17 13 12
-3.250000 -3.187500 -9.000000 17 13 13
-1.081690 -2.298592 -6.490141 47 42 38
-1.005464 -2.229508 -6.295082 47 42 38
-0.956522 -2.217391 -6.260870 47 42 38
-0.941176 -2.285714 -6.453782 47 42 38
-1.018727 -3.056180 -8.629213 25 29 24
-0.691892 -2.205405 -6.227027 25 29 25
-0.648649 -2.205405 -6.227027 30 34 30
-0.603774 -2.199461 -6.210243 29 34 29
-0.557641 -2.187668 -6.176944 38 43 38
-0.512000 -2.176000 -6.144000 41 46 41
-0.469333 -2.176000 -6.144000 32 37 33
-0.352423 -1.797357 -5.074890 38 47 46
-0.317181 -1.797357 -5.074890 62 76 76
-0.279476 -1.781659 -5.030568 77 95 93
-0.242424 -1.766234 -4.987013 76 97 94
-0.206897 -1.758621 -4.965517 73 96 92
-0.172414 -1.758621 -4.965517 72 94 91
-0.137931 -1.758621 -4.965517 73 94 90
-0.103672 -1.762419 -4.976242 74 93 91
-0.069565 -1.773913 -5.008696 74 89 93
3.417476 -2.640777 -7.456311 166 180 173
3.414013 -2.598726 -7.337580 197 213 208
3.521036 -2.640777 -7.456311 209 227 221
3.482650 -2.574132 -7.268139 206 225 218
1.175318 -0.799216 -2.256611 67 60 49
1.182879 -0.793774 -2.241245 61 50 37
1.189189 -0.787645 -2.223938 58 45 31
1.203472 -0.786885 -2.221794 55 43 26
1.218901 -0.786885 -2.221794 51 42 24
1.197782 -0.754159 -2.129390 45 39 27
1.199269 -0.745887 -2.106033 41 36 26
1.213894 -0.745887 -2.106033 39 33 24
1.229643 -0.746569 -2.107960 42 33 23
1.244282 -0.746569 -2.107960 43 33 21
1.262385 -0.748624 -2.113761 41 31 17
1.278237 -0.749311 -2.115702 39 30 15
1.347368 -0.780861 -2.204785 39 30 15
1.362679 -0.780861 -2.204785 41 32 17
-3.750000 -2.166667 -6.000000 7 7 7
-4.687500 -3.250000 -9.000000 11 11 11
-4.625000 -3.250000 -9.000000 12 10 11
-4.562500 -3.250000 -9.000000 12 10 11
-4.500000 -3.250000 -9.000000 12 10 11
-4.437500 -3.250000 -9.000000 12 10 11
-4.375000 -3.250000 -9.000000 13 11 12
-4.312500 -3.250000 -9.000000 13 11 12
-4.250000 -3.250000 -9.000000 13 11 12
-4.187500 -3.250000 -9.000000 13 11 12
-4.125000 -3.250000 -9.000000 13 11 11
-4.062500 -3.250000 -9.000000 13 11 11
-4.000000 -3.250000 -9.000000 13 11 11
-3.937500 -3.250000 -9.000000 13 11 11
-3.875000 -3.250000 -9.000000 14 11 11
-3.812500 -3.250000 -9.000000 13 10 11
-3.750000 -3.250000 -9.000000 14 11 12
-3.687500 -3.250000 -9.000000 14 11 12
-3.625000 -3.250000 -9.000000 14 11 13
-3.562500 -3.250000 -9.000000 14 12 15
-3.500000 -3.250000 -9.000000 14 12 15
-3.437500 -3.250000 -9.000000 14 12 15
-3.375000 -3.250000 -9.000000 14 13 15
-3.312500 -3.250000 -9.000000 15 13 16
-3.250000 -3.250000 -9.000000 16 14 17
-3.187500 -3.250000 -9.000000 17 15 16
-1.090909 -2.363636 -6.545455 43 38 33
-1.036620 -2.343662 -6.490141 42 37 32
-0.985994 -2.330532 -6.453782 44 39 34
-0.903226 -2.236559 -6.193548 45 40 34
-1.250000 -3.250000 -9.000000 44 39 34
-0.602151 -2.236559 -6.193548 29 32 30
-0.452174 -1.808696 -5.008696 39 42 38
-0.418301 -1.812636 -5.019608 45 50 44
-0.384279 -1.816594 -5.030568 33 39 31
-0.349345 -1.816594 -5.030568 44 51 44
-0.313726 -1.812636 -5.019608 109 117 109
-0.277657 -1.804772 -4.997831 142 152 140
-0.241901 -1.796976 -4.976242 140 152 138
-0.206897 -1.793103 -4.965517 140 152 137
-0.172414 -1.793103 -4.965517 138 151 136
-0.137931 -1.793103 -4.965517 137 149 135
-0.103896 -1.800866 -4.987013 135 147 135
-0.070175 -1.824561 -5.052631 137 149 138
1.168805 -0.821323 -2.274432 183 189 181
1.175318 -0.814887 -2.256611 135 137 126
1.184031 -0.810127 -2.243428 71 70 56
1.193798 -0.806202 -2.232558 51 47 32
1.204633 -0.803089 -2.223938 50 42 25
1.224806 -0.806202 -2.232558 51 40 24
1.200366 -0.761208 -2.107960 43 36 24
1.213894 -0.760512 -2.106033 40 33 22
1.225160 -0.758432 -2.100273 40 34 22
1.244282 -0.761208 -2.107960 40 33 21
1.262385 -0.763303 -2.113761 41 31 19
1.332057 -0.796172 -2.204785 41 30 17
1.352546 -0.799232 -2.213257 41 30 17
1.365292 -0.797699 -2.209013 42 31 18
-3.750000 -2.208333 -6.000000 7 7 7
-4.687500 -3.312500 -9.000000 11 11 11
-4.625000 -3.312500 -9.000000 12 10 11
-4.562500 -3.312500 -9.000000 12 10 11
-4.500000 -3.312500 -9.000000 12 10 11
-4.437500 -3.312500 -9.000000 12 10 11
-4.375000 -3.312500 -9.000000 13 11 12
-4.312500 -3.312500 -9.000000 13 11 12
-4.250000 -3.312500 -9.000000 13 11 12
-4.187500 -3.312500 -9.000000 13 11 12
-4.125000 -3.312500 -9.000000 13 11 12
-4.062500 -3.312500 -9.000000 13 11 12
-4.000000 -3.312500 -9.000000 13 11 12
-3.937500 -3.312500 -9.000000 13 11 12
-3.875000 -3.312500 -9.000000 14 12 13
-3.812500 -3.312500 -9.000000 13 11 12
-3.750000 -3.312500 -9.000000 14 12 13
-3.687500 -3.312500 -9.000000 14 12 13
-3.625000 -3.312500 -9.000000 13 12 15
-3.562500 -3.312500 -9.000000 13 12 17
-3.500000 -3.312500 -9.000000 13 12 17
-3.437500 -3.312500 -9.000000 13 12 17
-3.375000 -3.312500 -9.000000 13 12 17
-3.312500 -3.312500 -9.000000 14 13 17
-3.250000 -3.312500 -9.000000 14 13 18
-3.187500 -3.312500 -9.000000 16 15 18
-1.094017 -2.415954 -6.564103 42 37 31
-1.045455 -2.409091 -6.545455 42 37 31
-0.994350 -2.395480 -6.508474 44 39 33
-0.813559 -2.053269 -5.578692 45 40 34
-0.774818 -2.053269 -5.578692 45 40 34
-0.519481 -1.835498 -4.987013 33 33 32
-0.483801 -1.831533 -4.976242 30 30 29
-0.449244 -1.831533 -4.976242 39 41 37
-0.417391 -1.843478 -5.008696 48 53 46
-0.383442 -1.847495 -5.019608 36 41 31
-0.348584 -1.847495 -5.019608 52 56 46
-0.313043 -1.843478 -5.008696 123 126 114
-0.276458 -1.831533 -4.976242 155 159 143
-0.241901 -1.831533 -4.976242 155 161 140
-0.206897 -1.827586 -4.965517 155 160 138
-0.172414 -1.827586 -4.965517 154 160 138
-0.138829 -1.839479 -4.997831 152 158 137
-0.104348 -1.843478 -5.008696 150 156 137
-0.070330 -1.863736 -5.063736 150 159 138
-0.035165 -1.863736 -5.063736 146 158 135
1.168805 -0.837117 -2.274432 233 240 232
1.177625 -0.832188 -2.261040 160 165 153
1.188661 -0.828934 -2.252199 79 81 66
1.199610 -0.825706 -2.243428 48 47 30
1.211650 -0.823301 -2.236893 47 39 23
1.230769 -0.825706 -2.243428 50 38 23
1.225160 -0.773017 -2.100273 39 34 22
1.245421 -0.776557 -2.109890 37 32 21
1.261228 -0.777269 -2.111824 39 30 19
1.337176 -0.814601 -2.213257 41 29 17
1.353846 -0.815385 -2.215385 41 29 17
1.369231 -0.815385 -2.215385 41 29 17
-3.750000 -2.250000 -6.000000 7 7 7
-4.687500 -3.375000 -9.000000 10 10 10
-4.625000 -3.375000 -9.000000 11 10 11
-4.562500 -3.375000 -9.000000 12 10 11
-4.500000 -3.375000 -9.000000 12 10 11
-4.437500 -3.375000 -9.000000 12 10 11
-4.375000 -3.375000 -9.000000 13 11 12
-4.312500 -3.375000 -9.000000 13 11 12
-4.250000 -3.375000 -9.000000 13 11 12
-4.187500 -3.375000 -9.000000 13 11 12
-4.125000 -3.375000 -9.000000 13 11 12
-4.062500 -3.375000 -9.000000 13 11 12
-4.000000 -3.375000 -9.000000 13 11 12
-3.937500 -3.375000 -9.000000 13 11 12
-3.875000 -3.375000 -9.000000 14 12 13
-3.812500 -3.375000 -9.000000 13 11 12
-3.750000 -3.375000 -9.000000 15 13 14
-3.687500 -3.375000 -9.000000 14 13 14
-3.625000 -3.375000 -9.000000 13 12 14
-3.562500 -3.375000 -9.000000 13 13 15
-3.500000 -3.375000 -9.000000 13 13 16
-3.437500 -3.375000 -9.000000 13 13 16
-3.375000 -3.375000 -9.000000 13 13 16
-3.312500 -3.375000 -9.000000 14 13 16
-3.250000 -3.375000 -9.000000 14 14 17
-3.187500 -3.375000 -9.000000 16 15 17
-1.562500 -3.375000 -9.000000 44 39 33
-1.500000 -3.375000 -9.000000 44 39 33
-1.357934 -3.188192 -8.501845 44 39 33
-1.298893 -3.188192 -8.501845 45 40 34
-1.239852 -3.188192 -8.501845 45 40 34
-1.250000 -3.375000 -9.000000 45 40 34
-1.187500 -3.375000 -9.000000 45 40 34
-1.000000 -3.375000 -9.000000 33 31 27
-0.518359 -1.866091 -4.976242 33 33 31
-0.483801 -1.866091 -4.976242 30 30 29
-0.449244 -1.866091 -4.976242 41 43 39
-0.418301 -1.882353 -5.019608 53 58 50
-0.383442 -1.882353 -5.019608 39 45 35
-0.348584 -1.882353 -5.019608 58 62 51
-0.313726 -1.882353 -5.019608 125 129 116
-0.277657 -1.874187 -4.997831 152 156 139
-0.241901 -1.866091 -4.976242 153 158 136
-0.206897 -1.862069 -4.965517 151 156 132
-0.173160 -1.870130 -4.987013 151 156 133
-0.138829 -1.874187 -4.997831 150 155 133
-0.105960 -1.907285 -5.086093 150 156 135
1.159881 -0.857994 -2.287984 241 249 241
1.172277 -0.855446 -2.281188 194 198 188
1.184600 -0.852912 -2.274432 103 104 90
1.193327 -0.847890 -2.261040 64 63 47
1.203125 -0.843750 -2.250000 47 43 26
1.215190 -0.841285 -2.243428 47 38 22
1.227184 -0.838835 -2.236893 48 36 22
1.242718 -0.838835 -2.236893 46 36 22
1.291066 -0.829971 -2.213257 37 32 21
1.246563 -0.791934 -2.111824 36 31 21
1.261228 -0.791934 -2.111824 37 29 18
1.337176 -0.829971 -2.213257 39 28 18
1.357763 -0.833173 -2.221794 39 28 18
1.373192 -0.833173 -2.221794 39 28 18
-3.750000 -2.291667 -6.000000 7 7 7
-4.687500 -3.437500 -9.000000 10 10 10
-4.625000 -3.437500 -9.000000 11 10 10
-4.562500 -3.437500 -9.000000 12 10 11
-4.500000 -3.437500 -9.000000 12 10 11
-4.437500 -3.437500 -9.000000 12 10 11
-4.375000 -3.437500 -9.000000 13 11 12
-4.312500 -3.437500 -9.000000 13 11 12
-4.250000 -3.437500 -9.000000 13 11 12
-4.187500 -3.437500 -9.000000 13 11 12
-4.125000 -3.437500 -9.000000 13 11 12
-4.062500 -3.437500 -9.000000 13 11 12
-4.000000 -3.437500 -9.000000 13 11 12
-3.937500 -3.437500 -9.000000 13 11 12
-3.875000 -3.437500 -9.000000 15 13 14
-3.812500 -3.437500 -9.000000 14 12 13
-3.750000 -3.437500 -9.000000 15 13 14
-3.687500 -3.437500 -9.000000 15 13 14
-3.625000 -3.437500 -9.000000 13 13 13
-3.562500 -3.437500 -9.000000 13 13 14
-3.500000 -3.437500 -9.000000 13 13 14
-3.437500 -3.437500 -9.000000 13 13 14
-3.375000 -3.437500 -9.000000 13 13 14
-3.312500 -3.437500 -9.000000 14 14 14
-3.250000 -3.437500 -9.000000 14 14 15
-3.187500 -3.437500 -9.000000 16 16 15
-1.625000 -3.437500 -9.000000 43 38 33
-1.562500 -3.437500 -9.000000 44 39 33
-1.500000 -3.437500 -9.000000 45 40 34
-1.378277 -3.295880 -8.629213 45 40 34
-1.313433 -3.283582 -8.597015 45 40 34
-1.312500 -3.437500 -9.000000 45 40 34
-1.250000 -3.437500 -9.000000 45 40 34
-1.187500 -3.437500 -9.000000 45 40 33
-1.125000 -3.437500 -9.000000 42 39 31
-1.062500 -3.437500 -9.000000 32 29 23
-1.000000 -3.437500 -9.000000 33 31 27
-0.518359 -1.900648 -4.976242 33 32 31
-0.483801 -1.900648 -4.976242 30 30 29
-0.241901 -1.900648 -4.976242 153 159 136
-0.138829 -1.908894 -4.997831 150 155 132
1.159881 -0.873883 -2.287984 213 217 208
1.175770 -0.873883 -2.287984 125 125 113
1.189296 -0.872151 -2.283449 79 75 61
1.199211 -0.867850 -2.272189 56 50 34
1.209028 -0.863592 -2.261040 48 40 23
1.218750 -0.859375 -2.250000 46 36 21
1.227184 -0.854369 -2.236893 47 35 22
1.237911 -0.851064 -2.228240 44 34 22
1.338521 -0.856031 -2.241245 36 28 18
1.344928 -0.850242 -2.226087 37 28 17
1.359073 -0.849421 -2.223938 37 28 17
1.373192 -0.848602 -2.221794 37 28 17
-3.750000 -2.333333 -6.000000 8 8 8
-4.687500 -3.500000 -9.000000 11 11 11
-4.625000 -3.500000 -9.000000 11 9 10
-4.562500 -3.500000 -9.000000 10 8 9
-4.500000 -3.500000 -9.000000 12 10 11
-4.437500 -3.500000 -9.000000 13 11 12
-4.375000 -3.500000 -9.000000 12 10 11
-4.312500 -3.500000 -9.000000 12 10 11
-4.250000 -3.500000 -9.000000 13 11 12
-4.187500 -3.500000 -9.000000 12 10 11
-4.125000 -3.500000 -9.000000 12 10 11
-4.062500 -3.500000 -9.000000 13 11 12
-4.000000 -3.500000 -9.000000 13 11 12
-3.937500 -3.500000 -9.000000 13 11 12
-3.875000 -3.500000 -9.000000 13 11 12
-3.812500 -3.500000 -9.000000 13 11 12
-3.750000 -3.500000 -9.000000 14 12 13
-3.687500 -3.500000 -9.000000 14 12 13
-3.625000 -3.500000 -9.000000 14 13 13
-3.562500 -3.500000 -9.000000 14 14 14
-3.500000 -3.500000 -9.000000 14 14 14
-3.437500 -3.500000 -9.000000 14 14 14
-3.375000 -3.500000 -9.000000 14 14 14
-3.312500 -3.500000 -9.000000 14 14 14
-3.250000 -3.500000 -9.000000 14 14 14
-3.187500 -3.500000 -9.000000 16 15 14
-1.937500 -3.500000 -9.000000 39 34 31
-1.875000 -3.500000 -9.000000 39 34 31
-1.812500 -3.500000 -9.000000 41 36 32
-1.750000 -3.500000 -9.000000 42 37 33
-1.687500 -3.500000 -9.000000 42 37 33
-1.625000 -3.500000 -9.000000 42 37 32
-1.562500 -3.500000 -9.000000 42 37 31
-1.500000 -3.500000 -9.000000 43 38 32
-1.373134 -3.343284 -8.597015 43 38 32
-1.303704 -3.318518 -8.533334 44 39 33
-1.258427 -3.355805 -8.629213 43 38 32
-1.250000 -3.500000 -9.000000 43 38 32
-1.187500 -3.500000 -9.000000 42 37 31
-1.125000 -3.500000 -9.000000 41 38 30
-1.062500 -3.500000 -9.000000 33 30 24
-1.000000 -3.500000 -9.000000 32 30 26
0.975107 -0.769099 -1.977682 241 249 242
0.986301 -0.767123 -1.972603 228 234 225
1.169169 -0.896897 -2.306306 148 150 140
1.185185 -0.896897 -2.306306 87 85 74
1.192843 -0.890656 -2.290258 68 62 49
1.205154 -0.888008 -2.283449 48 39 25
1.212598 -0.881890 -2.267717 46 36 22
1.218750 -0.875000 -2.250000 47 35 23
1.233171 -0.874146 -2.247805 46 33 23
1.234330 -0.864031 -2.221794 43 32 22
1.247353 -0.862368 -2.217517 40 31 21
1.350145 -0.869059 -2.234724 36 27 18
1.361702 -0.866538 -2.228240 36 27 17
1.375845 -0.865700 -2.226087 34 26 16
-3.750000 -2.375000 -6.000000 8 8 8
-4.687500 -3.562500 -9.000000 12 11 12
-4.625000 -3.562500 -9.000000 11 9 10
-4.562500 -3.562500 -9.000000 10 8 9
-4.500000 -3.562500 -9.000000 11 9 10
-4.437500 -3.562500 -9.000000 13 11 12
-4.375000 -3.562500 -9.000000 12 10 11
-4.312500 -3.562500 -9.000000 12 10 11
-4.250000 -3.562500 -9.000000 13 11 12
-4.187500 -3.562500 -9.000000 12 10 11
-4.125000 -3.562500 -9.000000 13 11 12
-4.062500 -3.562500 -9.000000 13 11 12
-4.000000 -3.562500 -9.000000 13 11 12
-3.937500 -3.562500 -9.000000 13 11 12
-3.875000 -3.562500 -9.000000 13 11 12
-3.812500 -3.562500 -9.000000 13 11 12
-3.750000 -3.562500 -9.000000 14 12 13
-3.687500 -3.562500 -9.000000 14 12 13
-3.625000 -3.562500 -9.000000 14 14 13
-3.562500 -3.562500 -9.000000 14 14 13
-3.500000 -3.562500 -9.000000 14 14 13
-3.437500 -3.562500 -9.000000 14 14 13
-3.375000 -3.562500 -9.000000 15 15 13
-3.312500 -3.562500 -9.000000 15 15 13
-3.250000 -3.562500 -9.000000 15 15 13
-3.187500 -3.562500 -9.000000 16 16 13
-1.937500 -3.562500 -9.000000 43 38 33
-1.875000 -3.562500 -9.000000 44 39 33
-1.812500 -3.562500 -9.000000 44 39 34
-1.750000 -3.562500 -9.000000 44 39 34
-1.687500 -3.562500 -9.000000 44 39 33
-1.625000 -3.562500 -9.000000 42 37 32
-1.562500 -3.562500 -9.000000 42 37 31
-1.432836 -3.402985 -8.597015 42 37 31
-1.362963 -3.377778 -8.533334 42 37 31
-1.294118 -3.352941 -8.470589 43 38 32
-1.258427 -3.415730 -8.629213 44 39 33
-1.250000 -3.562500 -9.000000 43 38 32
-1.187500 -3.562500 -9.000000 42 38 31
-1.125000 -3.562500 -9.000000 42 38 31
-1.062500 -3.562500 -9.000000 34 31 25
0.968858 -0.788927 -1.993080 241 251 246
0.977625 -0.784854 -1.982788 235 244 236
1.161290 -0.919355 -2.322581 184 190 182
1.177419 -0.919355 -2.322581 129 131 122
1.189950 -0.916583 -2.315578 97 95 86
1.201201 -0.912913 -2.306306 57 51 41
1.208748 -0.906561 -2.290258 47 38 27
1.212598 -0.897638 -2.267717 47 36 26
1.218750 -0.890625 -2.250000 48 35 25
1.231969 -0.888889 -2.245614 46 33 24
1.234330 -0.879460 -2.221794 42 32 22
1.249759 -0.879460 -2.221794 39 30 21
1.273786 -0.885437 -2.236893 39 30 22
1.341131 -0.888889 -2.245614 33 27 19
1.352770 -0.886297 -2.239067 35 27 19
1.364341 -0.883721 -2.232558 34 27 18
1.379845 -0.883721 -2.232558 32 25 17
-3.750000 -2.416667 -6.000000 8 8 8
-4.687500 -3.625000 -9.000000 12 12 12
-4.625000 -3.625000 -9.000000 12 10 11
-4.562500 -3.625000 -9.000000 11 9 10
-4.500000 -3.625000 -9.000000 11 9 10
-4.437500 -3.625000 -9.000000 13 11 12
-4.375000 -3.625000 -9.000000 13 11 12
